# .PCD v0.7 - Point Cloud Data file format
VERSION 0.7
FIELDS x y z intensity
SIZE 4 4 4 4
TYPE F F F F
COUNT 1 1 1 1
WIDTH 131
HEIGHT 1
VIEWPOINT 0 0 0 1 0 0 0
POINTS 131
DATA ascii
5.2270002 -1.793 -1.5220001 0
5.8569999 -1.707 -1.535 0.30000001
5.2350001 -1.803 -1.485 0.07
5.2810001 -1.8150001 -1.3940001 0.11
5.5105 -1.8150001 -1.3889999 0.115
5.572 -1.807 -1.469 0.18000001
5.9159999 -1.8225 -1.362 0.31
5.1989999 -1.7955 -1.4205 0.050000001
5.5121665 -1.7376666 -1.3833333 0.17666668
5.6335001 -1.75775 -1.43275 0.1075
5.7865 -1.692 -1.4172499 0.10250001
5.9572501 -1.74625 -1.4305 0.23
6.007 -1.779 -1.38 0.16
5.6743331 -1.5583334 -1.4103333 0.34999999
5.7298336 -1.5445 -1.3933333 0.23000002
6.1409998 -1.601 -1.466 0
6.5861669 -1.5786667 -1.386 0.38833332
6.9334998 -1.5369999 -1.4300001 0.51499999
5.2950001 -1.803 -1.219 0.039999999
5.6106668 -1.803 -1.311 0.07
5.9586663 -1.835 -1.3026667 0.28666666
6.0485559 -1.8522222 -1.2632222 0.55888891
5.2275 -1.7909999 -1.289 0
5.3169999 -1.7920001 -1.223 0.11
5.5454998 -1.7690001 -1.334 0.029999999
5.6043334 -1.743 -1.3071667 0.063333333
5.7989998 -1.688 -1.2735 0.17500001
5.9187269 -1.730909 -1.2852727 0.20545457
6.0314999 -1.7605 -1.2795 0.19499999
5.632833 -1.5846667 -1.342 0.18333334
5.7865653 -1.5728695 -1.2668263 0.44
5.9070001 -1.5173334 -1.2703333 0.38333333
6.085 -1.513 -1.222 0.2
6.6090002 -1.5420001 -1.3329999 0.19
6.8540001 -1.531 -1.235 0.02
5.7610002 -1.4875 -1.2795 0.18000001
5.3720002 -1.8049999 -1.14 0.16
6.0599999 -1.8453335 -1.1020001 0.32000002
6.1894999 -1.8305 -1.1340001 0.035
5.3660002 -1.7950001 -1.163 0.090000004
5.4692497 -1.7722501 -1.09675 0.125
5.6040001 -1.7256666 -1.0796667 0.086666666
5.7876668 -1.7220001 -1.1536666 0.13000001
5.9223332 -1.7526668 -1.0953333 0.28333333
6.0920005 -1.7540001 -1.084 0.21666665
5.8159995 -1.5594285 -1.1201428 0.42428568
5.8936429 -1.5642143 -1.1214999 0.40642858
6.4109998 -1.551 -1.094 0
6.5339999 -1.5555 -1.0664999 0.044999998
6.6906667 -1.548 -1.0936667 0.043333333
6.7884998 -1.543 -1.1619999 0
5.835 -1.478 -1.112 0.60000002
5.9177999 -1.4898001 -1.123 0.47999996
6.1370001 -1.4859999 -1.098 0
6.0766001 -1.8432 -1.0094001 0.40899998
5.428 -1.752 -1.0470001 0
5.8189998 -1.6999999 -0.96566671 0.16000001
5.9170003 -1.732 -0.93300003 0.35333335
6.0903997 -1.7422001 -1.0178 0.28799999
5.921 -1.5681177 -0.98329419 0.38411769
6.0939999 -1.5190001 -0.93400002 0
5.9264002 -1.4823999 -0.96619999 0.37200001
6.0193329 -1.4816666 -1.0056666 0.40000001
6.158 -1.498 -1 0.56
5.7210002 -1.9579999 -0.83499998 0.43000001
5.6775999 -1.872 -0.82379997 0.45199999
5.7337503 -1.84475 -0.83124995 0.36750001
5.7564001 -1.7158 -0.84029996 0.36200002
5.7800584 -1.5708823 -0.85017645 0.43235293
5.8649998 -1.52 -0.89649999 0.435
6.0510001 -1.543 -0.759 0
6.4118004 -1.5606 -0.76599997 0.20999999
6.6659999 -1.5140001 -0.85000002 0.77999997
5.77 -1.423 -0.81800002 0.07
5.8795004 -1.4795001 -0.83749998 0.54500002
6.4038334 -1.4706665 -0.78516668 0.23166667
6.5170002 -1.3609999 -0.82200003 0
6.618 -1.359 -0.78899997 0.19
6.5419998 -1.3329999 -0.77700001 0.18000001
5.6863332 -1.9753333 -0.72466666 0.33000001
5.6771579 -1.8641052 -0.68478948 0.36210525
5.7258182 -1.887091 -0.63527268 0.28
5.6642914 -1.7217917 -0.67075008 0.32875001
5.7210002 -1.7240001 -0.60688889 0.29333332
5.668714 -1.6049289 -0.67985713 0.36642861
5.747807 -1.5511153 -0.64207691 0.28115386
6.3788004 -1.5718 -0.73179996 0.039999999
5.6690001 -1.449 -0.65700001 0
5.7843337 -1.498 -0.70300001 0.38333333
5.8682499 -1.487 -0.67300004 0.055
6.0968337 -1.4473333 -0.60233331 0.25
6.2401433 -1.4537144 -0.67142856 0.17142858
6.3246665 -1.4496666 -0.70600003 0.14999999
5.6649995 -1.8426666 -0.55199999 0.28166667
5.7361999 -1.8455999 -0.51190007 0.252
5.6668468 -1.7242309 -0.53346151 0.32384616
5.7273674 -1.7259474 -0.49968424 0.29105264
5.6575556 -1.5866667 -0.54533339 0.30333331
5.7561717 -1.5714138 -0.50631034 0.27413794
5.9042501 -1.5239999 -0.47675002 0.13250001
6.007 -1.507 -0.48699999 0.11
5.7845001 -1.4855 -0.54074997 0.11
5.921 -1.493 -0.51499999 0.18000001
6.0717502 -1.4488499 -0.52675003 0.204
6.1599998 -1.408 -0.5765 0.31
5.756 -1.8225001 -0.38600001 0.16666666
5.9109998 -1.855 -0.331 0.13
5.6948748 -1.7078751 -0.406625 0.35750002
5.7423182 -1.728909 -0.35604545 0.1718182
5.6889997 -1.6329999 -0.40533331 0.36333334
5.7629719 -1.5687222 -0.36533326 0.21472222
5.8859997 -1.505 -0.359 0.26999998
5.835 -1.4935 -0.39099997 0.145
5.930407 -1.4392592 -0.38477775 0.22814815
6.0130005 -1.4043332 -0.36766669 0.20333333
5.9172497 -1.81775 -0.24950001 0.077500001
6 -1.859 -0.26100001 0.12
5.7958746 -1.720875 -0.28375 0
5.9112349 -1.7181177 -0.23070589 0.17529412
6.0032501 -1.71325 -0.18375 0.13249999
5.8222857 -1.5925714 -0.28285715 0
5.9272265 -1.574182 -0.23468179 0.21818183
6.0693002 -1.5634 -0.1751 0.139
5.9324999 -1.4607999 -0.2705 0.068999998
6.0204997 -1.4725 -0.2475 0.1575
5.9614 -1.6833999 -0.13119999 0.091999993
6.0504999 -1.6810001 -0.079875007 0.066249996
5.954 -1.61675 -0.14575 0.13
6.0632176 -1.5822611 -0.089260876 0.030434782
6.1649995 -1.5510001 -0.05366667 0.046666667
6.0916667 -1.6096667 0.0026666669 0
