# .PCD v0.7 - Point Cloud Data file format
VERSION 0.7
FIELDS x y z intensity
SIZE 4 4 4 4
TYPE F F F F
COUNT 1 1 1 1
WIDTH 99
HEIGHT 1
VIEWPOINT 0 0 0 1 0 0 0
POINTS 99
DATA ascii
25.332001 0.78600001 -1.365 0
23.322001 -0.048 -1.24 0.1
23.481001 -0.085000001 -1.25 0.37
23.32 0.061499998 -1.24 0.16
23.333 0.2085 -1.2410001 0.13
23.372 0.31900001 -1.243 0
23.482 0.39399999 -1.25 0.07
23.792 0.47499999 -1.2690001 0.18000001
24.051001 0.51800001 -1.285 0
24.476 0.60399997 -1.312 0
24.806999 0.69099998 -1.332 0
24.9 0.71100003 -1.205 0
25.26 0.80000001 -1.226 0
25.688 0.85399997 -1.25 0
23.375999 -0.176 -1.119 0.18000001
23.304001 -0.065499999 -1.1145 0.18000001
23.317001 0.081 -1.1155 0.20500001
23.335999 0.22749999 -1.1165 0.050000001
23.4 0.30199999 -1.12 0
23.587 0.37799999 -1.131 0
23.981001 0.45899999 -1.153 0
24.183001 0.53899997 -1.165 0
24.532 0.62300003 -1.1849999 0
24.971001 0.73500001 -1.051 0
25.356001 0.82599998 -1.0700001 0
25.746 0.921 -1.09 0
23.347 -0.19499999 -0.96899998 0
23.303501 -0.0845 -0.96650004 0.039999999
23.306 0.061499998 -0.96700001 0.125
23.322668 0.22066666 -0.96799999 0.096666664
23.445 0.35699999 -0.97399998 0
23.825001 0.43799999 -0.99299997 0.16
24.063 0.51800001 -1.005 0
24.299 0.60000002 -1.017 0
24.601 0.685 -1.0319999 0
24.853001 0.71100003 -0.90200001 0
25.214001 0.80000001 -0.91799998 0
25.611 0.89300001 -0.93599999 0
23.3855 -0.248 -0.83650005 0.16499999
23.393 -0.138 -0.83700001 0.16
23.490999 -0.064999998 -0.84100002 0.76999998
23.141001 0.119 -0.82599998 0.99000001
23.399 0.0089999996 -0.83700001 0.22
23.410999 0.082999997 -0.838 0.94999999
23.143999 0.191 -0.82599998 0.74000001
23.268 0.26499999 -0.83099997 0
23.5 0.34099999 -0.84200001 0
23.659 0.41800001 -0.84899998 0
23.867001 0.49599999 -0.85799998 0
24.219 0.579 -0.87400001 0
24.507999 0.625 -0.88700002 0
24.867001 0.72100002 -0.755 0
25.205999 0.81099999 -0.76800001 0
25.646999 0.90600002 -0.78500003 0
23.391001 -0.205 -0.69800001 0.38
23.389334 -0.070666663 -0.69766665 0.27666667
23.389999 0.052000001 -0.69800001 0.2
23.415001 0.273 -0.699 0.23999999
23.579 0.20100001 -0.70499998 0.57999998
23.534 0.34799999 -0.70300001 0
23.712 0.426 -0.70999998 0
23.959 0.46799999 -0.72000003 0
24.212999 0.54900002 -0.73000002 0
24.487 0.63300002 -0.74000001 0
25.669001 0.87 -0.61799997 0.07
23.458 -0.456 -0.54699999 0
23.552 -0.31 -0.55000001 0
23.8815 -0.2025 -0.56 0
23.686001 -0.052000001 -0.55400002 0
23.91 -0.090000004 -0.56099999 0
23.398001 0.096000001 -0.54500002 0.029999999
23.419001 0.023 -0.54500002 0
23.802999 0.24699999 -0.55800003 0
23.559999 0.31900001 -0.55000001 0
23.784 0.359 -0.55699998 0
24.08 0.43900001 -0.56599998 0
24.782 0.52899998 -0.58899999 0
24.764 0.60600001 -0.58899999 0
25.622 0.77399999 -0.46399999 0
24.076 0.044999998 -0.42300001 0.059999999
23.629002 0.248 -0.41150001 0
23.912001 0.15700001 -0.419 0
23.864 0.34400001 -0.41800001 0
24.136 0.36199999 -0.301 0
24.209 0.426 -0.42699999 0
24.831665 0.5496667 -0.35833335 0
25.396 0.65899998 -0.32800001 0
23.938999 -0.017000001 -0.29699999 0
23.8015 0.2455 -0.294 0
24.368 -0.60299999 -0.13600001 0
24.486 -0.68299997 -0.138 0
24.294001 -0.52499998 -0.13500001 0
24.213501 -0.4095 -0.134 0
24.178501 -0.257 -0.133 0
24.184 -0.092333339 -0.13333334 0
24.232 0.046999998 -0.134 0
24.318001 0.124 -0.13500001 0
24.3995 0.2395 -0.1365 0
24.521 0.35600001 -0.138 0
