# .PCD v0.7 - Point Cloud Data file format
VERSION 0.7
FIELDS x y z intensity
SIZE 4 4 4 4
TYPE F F F F
COUNT 1 1 1 1
WIDTH 473
HEIGHT 1
VIEWPOINT 0 0 0 1 0 0 0
POINTS 473
DATA ascii
8.342 -0.51300001 -0.013 0.050000001
8.3649998 -0.48800001 -0.014 0.16
8.3389997 -0.46000001 -0.013 0
8.3559999 -0.435 -0.013 0
8.243 -0.53299999 -0.059999999 0.079999998
8.2650003 -0.50800002 -0.061000001 0.16
8.2700005 -0.48199999 -0.061000001 0.22
8.2709999 -0.46900001 -0.061000001 0.17
8.217 -0.44 -0.059 0.14
8.2320004 -0.41499999 -0.059 0.2
8.2709999 -0.391 -0.061000001 0.079999998
8.2749996 -0.55800003 -0.116 0.23
8.2620001 -0.53100002 -0.115 0.23999999
8.2460003 -0.50400001 -0.115 0.5
8.2480001 -0.47799999 -0.115 0.34999999
8.2010002 -0.44999999 -0.113 0.31
8.1780005 -0.43599999 -0.112 0.20999999
8.1330004 -0.40799999 -0.11 0.37
8.2180004 -0.38600001 -0.113 0.15000001
8.2419996 -0.57599998 -0.164 0.2
8.2200003 -0.54900002 -0.163 0.31999999
8.2010002 -0.52200001 -0.162 0.36000001
8.1890001 -0.495 -0.161 0.33000001
8.1990004 -0.47 -0.162 0.47
8.1780005 -0.44299999 -0.161 0.28
8.1610003 -0.41600001 -0.16 0.36000001
8.1639996 -0.403 -0.16 0.36000001
8.1890001 -0.37900001 -0.161 0.33000001
8.1599998 -0.61199999 -0.208 0.16
8.1260004 -0.583 -0.206 0.41
8.1020002 -0.55599999 -0.204 0.2
8.0810003 -0.542 -0.20299999 0.23
8.0699997 -0.51599997 -0.20299999 0.2
8.0579996 -0.49000001 -0.20200001 0.27000001
8.0500002 -0.46399999 -0.20200001 0.23999999
8.0509996 -0.43900001 -0.20200001 0.28999999
8.0620003 -0.414 -0.20200001 0.33000001
8.0459995 -0.38800001 -0.20100001 0.27000001
8.0620003 -0.37599999 -0.20200001 0.37
8.0749998 -0.35100001 -0.20299999 0.25999999
8.0799999 -0.32600001 -0.20299999 0.33000001
8.1110001 -0.301 -0.204 0.25
8.1339998 -0.27700001 -0.205 0.14
8.2130003 -0.69199997 -0.26300001 0.17
8.1199999 -0.65799999 -0.25799999 0.23
8.0609999 -0.63999999 -0.25400001 0.2
8.0369997 -0.61299998 -0.25299999 0.23
8.0089998 -0.58499998 -0.25099999 0.28999999
7.987 -0.55800003 -0.25 0.33000001
7.9770002 -0.53200001 -0.249 0.22
7.987 -0.50800002 -0.25 0.30000001
7.9720001 -0.48199999 -0.249 0.31999999
7.9770002 -0.47 -0.249 0.31999999
7.98 -0.44499999 -0.249 0.30000001
7.9840002 -0.41999999 -0.249 0.34
7.993 -0.39500001 -0.25 0.31999999
8.0039997 -0.37 -0.25 0.31999999
8.0190001 -0.34599999 -0.25099999 0.31999999
8.0559998 -0.322 -0.25299999 0.33000001
8.0810003 -0.31099999 -0.25400001 0.27000001
8.1099997 -0.28600001 -0.25600001 0.31999999
8.1359997 -0.26199999 -0.257 0.23
8.1370001 -0.67400002 -0.303 0.20999999
8.0570002 -0.64200002 -0.29699999 0.31
8.0229998 -0.62699997 -0.29499999 0.28
8.0030003 -0.60000002 -0.294 0.28
7.987 -0.574 -0.29300001 0.30000001
7.9840002 -0.54900002 -0.29300001 0.34
7.9819999 -0.523 -0.292 0.30000001
7.9819999 -0.498 -0.292 0.34999999
7.9809999 -0.47299999 -0.292 0.30000001
7.9780002 -0.46000001 -0.292 0.37
7.9829998 -0.435 -0.292 0.31999999
7.9829998 -0.41 -0.292 0.38999999
8.0019999 -0.38600001 -0.29300001 0.31
8.0150003 -0.361 -0.294 0.38
8.0200005 -0.336 -0.294 0.30000001
8.0649996 -0.31299999 -0.29699999 0.30000001
8.1009998 -0.301 -0.29899999 0.25999999
8.1239996 -0.27599999 -0.30000001 0.43000001
8.1689997 -0.252 -0.303 0.30000001
8.0620003 -0.22400001 -0.296 0
8.0410004 -0.67699999 -0.35299999 0.16
7.98 -0.64600003 -0.34900001 0.23
7.96 -0.61900002 -0.347 0.30000001
7.9299998 -0.59200001 -0.345 0.27000001
7.9159999 -0.56599998 -0.34400001 0.34
7.9109998 -0.55299997 -0.34299999 0.33000001
7.9060001 -0.52700001 -0.34299999 0.34
7.8979998 -0.50199997 -0.34200001 0.33000001
7.9039998 -0.477 -0.34299999 0.28999999
7.9050002 -0.45300001 -0.34299999 0.36000001
7.9099998 -0.428 -0.34299999 0.31
7.928 -0.40400001 -0.34400001 0.37
7.9299998 -0.39199999 -0.34400001 0.30000001
7.9590001 -0.368 -0.34599999 0.38
7.9759998 -0.34400001 -0.347 0.34
8.0030003 -0.31999999 -0.34900001 0.18000001
8.0740004 -0.29699999 -0.354 0.23999999
8.1070004 -0.273 -0.35600001 0.56999999
8.0979996 -0.248 -0.35499999 0.20999999
8.1499996 -0.22400001 -0.359 0.34999999
8.0170002 -0.207 -0.34999999 0
8.0539999 -0.68099999 -0.39399999 0.23999999
8.007 -0.65200001 -0.38999999 0.23999999
7.9629998 -0.62300003 -0.38699999 0.47999999
7.967 -0.59899998 -0.38699999 0.28999999
7.9549999 -0.57300001 -0.38600001 0.49000001
7.9650002 -0.54799998 -0.38699999 0.31999999
7.9530001 -0.53500003 -0.38600001 0.43000001
7.9450002 -0.509 -0.38499999 0.38999999
7.947 -0.484 -0.38499999 0.41
7.9439998 -0.45899999 -0.38499999 0.43000001
7.9520001 -0.43399999 -0.38499999 0.36000001
7.961 -0.41 -0.38600001 0.43000001
7.9790001 -0.398 -0.38699999 0.34
7.987 -0.373 -0.38699999 0.43000001
8.0179996 -0.34900001 -0.38999999 0.40000001
8.0670004 -0.32600001 -0.39300001 0.34999999
8.1569996 -0.30399999 -0.40000001 0.25999999
8.1499996 -0.278 -0.39899999 0.52999997
8.165 -0.25299999 -0.40000001 0.33000001
8.2229996 -0.241 -0.405 0.31999999
8.2320004 -0.21600001 -0.405 0.56
8.2580004 -0.19 -0.40700001 0.27000001
7.9169998 -0.66900003 -0.43599999 0.18000001
7.8839998 -0.653 -0.433 0.27000001
7.9099998 -0.63 -0.435 0.18000001
7.888 -0.60399997 -0.433 0.36000001
7.8979998 -0.57999998 -0.43399999 0.19
7.868 -0.55199999 -0.43099999 0.31
7.862 -0.52700001 -0.43099999 0.2
7.8829999 -0.50400001 -0.43200001 0.15000001
7.8340001 -0.48800001 -0.428 0.13
7.8730001 -0.46599999 -0.43099999 0.15000001
7.835 -0.43900001 -0.428 0.12
7.8699999 -0.41600001 -0.43099999 0.16
7.8600001 -0.391 -0.43000001 0.27000001
7.855 -0.366 -0.43000001 0.1
7.9260001 -0.34400001 -0.435 0
7.9619999 -0.32100001 -0.43799999 0
8.165 -0.29100001 -0.454 0.30000001
8.1160002 -0.264 -0.44999999 0.31999999
8.1269999 -0.23899999 -0.45100001 0.27000001
8.158 -0.214 -0.45300001 0.19
8.1739998 -0.189 -0.45500001 0
8.1870003 -0.163 -0.456 0.050000001
7.9499998 -0.70200002 -0.48500001 0.12
7.8740001 -0.67000002 -0.47799999 0.28999999
7.8579998 -0.64399999 -0.477 0.37
7.855 -0.63200003 -0.47600001 0.31999999
7.8769999 -0.60799998 -0.47799999 0.41
7.869 -0.583 -0.477 0.37
7.8509998 -0.55699998 -0.47600001 0.36000001
7.8530002 -0.53200001 -0.47600001 0.31999999
7.848 -0.50700003 -0.47499999 0.38999999
7.848 -0.48199999 -0.47499999 0.37
7.849 -0.47 -0.47499999 0.38
7.8400002 -0.44499999 -0.47400001 0.36000001
7.8520002 -0.421 -0.47499999 0.44
7.8410001 -0.39500001 -0.47400001 0.30000001
7.8699999 -0.37200001 -0.47600001 0.36000001
7.915 -0.34900001 -0.47999999 0.38
7.96 -0.32600001 -0.484 0.31
8.0059996 -0.315 -0.48800001 0.25
8.1599998 -0.29499999 -0.50099999 0.28999999
8.1669998 -0.27000001 -0.50099999 0.34999999
8.1780005 -0.244 -0.50199997 0.34
8.1870003 -0.219 -0.50300002 0.31
8.2069998 -0.193 -0.505 0.47999999
8.2679996 -0.169 -0.50999999 0.27000001
7.8499999 -0.704 -0.52399999 0.1
7.8660002 -0.68000001 -0.52499998 0.12
7.8249998 -0.65200001 -0.52100003 0.14
7.8379998 -0.60399997 -0.52200001 0.41
7.8319998 -0.57800001 -0.52100003 0.19
7.8150001 -0.565 -0.51899999 0.23
7.8049998 -0.53899997 -0.51800001 0.25
7.8070002 -0.51499999 -0.51800001 0.23999999
7.7880001 -0.48899999 -0.51599997 0.11
7.8000002 -0.465 -0.51700002 0.14
7.7789998 -0.43900001 -0.51499999 0.1
7.7969999 -0.41600001 -0.51700002 0.14
7.8150001 -0.40400001 -0.51800001 0
7.803 -0.37900001 -0.51700002 0
7.822 -0.35499999 -0.51899999 0
7.8699999 -0.333 -0.523 0
7.915 -0.31 -0.52700001 0
8.1529999 -0.29499999 -0.54900002 0.07
8.2060003 -0.271 -0.55400002 0.090000004
8.2040005 -0.25799999 -0.55400002 0.15000001
8.1969995 -0.23199999 -0.55299997 0
8.217 -0.207 -0.55500001 0
7.855 -0.72600001 -0.57499999 0.19
7.8179998 -0.69800001 -0.57099998 0.51999998
7.8379998 -0.67500001 -0.57200003 0.22
7.8049998 -0.66000003 -0.56900001 0.56
7.8109999 -0.63599998 -0.56900001 0.28999999
7.8150001 -0.61199999 -0.56999999 0.47
7.8150001 -0.58700001 -0.56900001 0.38999999
7.7950001 -0.56099999 -0.56699997 0.38
7.7849998 -0.53600001 -0.56599998 0.40000001
7.789 -0.51099998 -0.56599998 0.40000001
7.777 -0.498 -0.565 0.41
7.7810001 -0.47400001 -0.565 0.41
7.79 -0.44999999 -0.56599998 0.41
7.7820001 -0.42500001 -0.565 0.41
7.789 -0.40099999 -0.56599998 0.44999999
7.8060002 -0.377 -0.56699997 0.34999999
7.8109999 -0.35299999 -0.56800002 0.5
7.8319998 -0.34099999 -0.56999999 0.31999999
7.9039998 -0.31900001 -0.57700002 0.25
8.349 -0.31 -0.62 0.38999999
8.29 -0.28099999 -0.61400002 0.36000001
8.2889996 -0.255 -0.61400002 0.31999999
8.2740002 -0.229 -0.61299998 0.5
8.2729998 -0.20299999 -0.61199999 0.41999999
7.8000002 -0.755 -0.61799997 0.34999999
7.8260002 -0.73299998 -0.62 0.28
7.803 -0.70599997 -0.61799997 0.58999997
7.8150001 -0.68199998 -0.61900002 0.27000001
7.7950001 -0.65499997 -0.616 0.54000002
7.7989998 -0.63099998 -0.61699998 0.28
7.7969999 -0.60600001 -0.616 0.46000001
7.7719998 -0.59200001 -0.61299998 0.44999999
7.77 -0.56699997 -0.61299998 0.37
7.7600002 -0.542 -0.61199999 0.47
7.7639999 -0.51800001 -0.61199999 0.34999999
7.7649999 -0.493 -0.61199999 0.46000001
7.7610002 -0.46900001 -0.611 0.36000001
7.7639999 -0.44400001 -0.61199999 0.46000001
7.7690001 -0.43200001 -0.61199999 0.36000001
7.7719998 -0.40799999 -0.61199999 0.41999999
7.789 -0.384 -0.61400002 0.38999999
7.802 -0.361 -0.61500001 0.43000001
7.8369999 -0.338 -0.61900002 0.28
7.8579998 -0.31400001 -0.62099999 0.54000002
8.1269999 -0.30000001 -0.64899999 0.17
8.3839998 -0.29699999 -0.67500001 0.41
8.3649998 -0.27000001 -0.67299998 0.37
8.2980003 -0.242 -0.66600001 0.55000001
8.46 -0.14 -0.68300003 0
7.9000001 -0.78399998 -0.68099999 0.23999999
7.8660002 -0.76800001 -0.67699999 0.23
7.8899999 -0.745 -0.67900002 0.38
7.8530002 -0.71700001 -0.67500001 0.23
7.8530002 -0.69199997 -0.67500001 0.38
7.8670001 -0.66799998 -0.676 0.20999999
7.8270001 -0.63999999 -0.671 0.14
7.8629999 -0.61799997 -0.67500001 0.47999999
7.8660002 -0.60600001 -0.67500001 0.28
7.8559999 -0.57999998 -0.67400002 0.27000001
7.848 -0.55500001 -0.67299998 0.27000001
7.8439999 -0.52999997 -0.67199999 0.28999999
7.849 -0.50599998 -0.67299998 0.28999999
7.8449998 -0.48100001 -0.67199999 0.30000001
7.8340001 -0.45500001 -0.671 0.28
7.8400002 -0.43099999 -0.671 0.31
7.8340001 -0.41800001 -0.67000002 0.30000001
7.8260002 -0.39300001 -0.66900003 0.16
7.8390002 -0.36899999 -0.671 0.41999999
7.8660002 -0.34599999 -0.67299998 0.15000001
7.8969998 -0.322 -0.67699999 0.38999999
7.9549999 -0.29899999 -0.68300003 0.2
8.4250002 -0.30199999 -0.73500001 0.23
8.5489998 -0.27900001 -0.74900001 0.12
8.7679996 -0.25799999 -0.773 0
8.4849997 -0.22400001 -0.74199998 0
8.6020002 -0.146 -0.75400001 0.029999999
7.803 -0.81 -0.71899998 0.23
7.8070002 -0.78600001 -0.71899998 0.28999999
7.8049998 -0.76099998 -0.71799999 0.41999999
7.7919998 -0.73500001 -0.71700001 0.44999999
7.7690001 -0.708 -0.71399999 0.31
7.7789998 -0.68400002 -0.71399999 0.34
7.7639999 -0.67000002 -0.713 0.40000001
7.7680001 -0.64600003 -0.713 0.25
7.7919998 -0.62400001 -0.71499997 0.44999999
7.7820001 -0.59799999 -0.71399999 0.38999999
7.776 -0.57300001 -0.713 0.36000001
7.7579999 -0.54699999 -0.71100003 0.37
7.757 -0.53500003 -0.70999998 0.38
7.7459998 -0.50999999 -0.70899999 0.37
7.7540002 -0.486 -0.70999998 0.34999999
7.7509999 -0.461 -0.70899999 0.38999999
7.763 -0.43700001 -0.70999998 0.38
7.7680001 -0.41299999 -0.71100003 0.38
7.7789998 -0.389 -0.71200001 0.38999999
7.8039999 -0.37799999 -0.71499997 0.34
7.8379998 -0.35499999 -0.71899998 0.36000001
7.8730001 -0.33199999 -0.72299999 0.33000001
7.8979998 -0.30899999 -0.72600001 0.38999999
7.947 -0.28600001 -0.73100001 0
8.4580002 -0.25299999 -0.79100001 0
8.4849997 -0.227 -0.79400003 0
8.6000004 -0.163 -0.80699998 0.14
7.848 -0.792 -0.76899999 0.31999999
7.829 -0.76499999 -0.76599997 0.37
7.829 -0.741 -0.76599997 0.37
7.809 -0.72600001 -0.764 0.37
7.7969999 -0.70099998 -0.76200002 0.41999999
7.8010001 -0.676 -0.76200002 0.38999999
7.7820001 -0.64999998 -0.759 0.40000001
7.8509998 -0.63099998 -0.76800001 0.36000001
7.756 -0.59899998 -0.75599998 0.36000001
7.8169999 -0.55400002 -0.76300001 0.23999999
7.836 -0.54299998 -0.76499999 0.41
7.8210001 -0.51700002 -0.76300001 0.47
7.8270001 -0.493 -0.764 0.12
7.7969999 -0.46700001 -0.75999999 0.28
7.8060002 -0.44299999 -0.76099998 0.38
7.803 -0.41800001 -0.75999999 0.40000001
7.8210001 -0.39399999 -0.76200002 0.38
7.8429999 -0.38299999 -0.76499999 0.38999999
7.8720002 -0.359 -0.76800001 0.31999999
7.901 -0.336 -0.77200001 0.36000001
7.9450002 -0.31200001 -0.77700001 0.41999999
7.895 -0.28600001 -0.77100003 0.17
8.5629997 -0.25400001 -0.85299999 0.23
7.8730001 -0.79799998 -0.81300002 0.41
7.8210001 -0.77999997 -0.80599999 0.27000001
7.796 -0.75199997 -0.80299997 0.47999999
7.8000002 -0.72799999 -0.80299997 0.36000001
7.7839999 -0.70200002 -0.80000001 0.41999999
7.7690001 -0.676 -0.79799998 0.38
7.7810001 -0.65200001 -0.79900002 0.51999998
7.9899998 -0.64499998 -0.82599998 0.28999999
7.8940001 -0.625 -0.81400001 0.31
7.875 -0.59799999 -0.81099999 0.28999999
7.8959999 -0.57499999 -0.81300002 0.38
7.7059999 -0.53600001 -0.78899997 0
7.842 -0.49700001 -0.80599999 0.12
7.835 -0.47099999 -0.80500001 0.33000001
7.816 -0.458 -0.80199999 0.36000001
7.802 -0.43200001 -0.80000001 0.41
7.8169999 -0.40900001 -0.80199999 0.34999999
7.8319998 -0.38499999 -0.80400002 0.43000001
7.8590002 -0.36199999 -0.80699998 0.37
7.868 -0.33700001 -0.80800003 0.44999999
7.7620001 -0.308 -0.79400003 0.56
7.927 -0.30199999 -0.815 0.13
8.2519999 -0.70200002 -0.91799998 0.13
8.2229996 -0.67299998 -0.91399997 0.25
8.1949997 -0.64499998 -0.91000003 0.5
8.2159996 -0.634 -0.912 0.31
8.2019997 -0.60699999 -0.91000003 0.58999997
8.2080002 -0.58099997 -0.91100001 0.28
8.2390003 -0.55699998 -0.91500002 0.54000002
7.915 -0.51099998 -0.87099999 0.28999999
7.928 -0.48699999 -0.87199998 0.12
7.967 -0.46399999 -0.87699997 0.16
7.9400001 -0.44999999 -0.87400001 0.43000001
7.948 -0.426 -0.87400001 0.38
7.9429998 -0.40099999 -0.87400001 0.38999999
7.9419999 -0.375 -0.87300003 0.44999999
7.9489999 -0.35100001 -0.87400001 0.38999999
8 -0.32800001 -0.88099998 0.33000001
8.3140001 -0.31299999 -0.92299998 0.57999998
8.1219997 -0.676 -0.95499998 0.20999999
8.0979996 -0.64899999 -0.95200002 0.31
8.1059999 -0.62400001 -0.95300001 0.31999999
8.1020002 -0.59799999 -0.95200002 0.25999999
8.1239996 -0.574 -0.95499998 0
8.1129999 -0.56 -0.95300001 0
7.9569998 -0.47400001 -0.93000001 0.15000001
7.9530001 -0.44800001 -0.92900002 0.23
7.927 -0.42199999 -0.92500001 0.25999999
7.9180002 -0.396 -0.92400002 0.30000001
7.9169998 -0.384 -0.92400002 0.31999999
7.928 -0.359 -0.92500001 0.27000001
7.9549999 -0.336 -0.92900002 0.25
7.9850001 -0.31200001 -0.93300003 0
8.0690002 -0.65399998 -0.98400003 0.37
8.0690002 -0.62900001 -0.98400003 0.44
8.0629997 -0.60299999 -0.98299998 0.49000001
8.0950003 -0.57999998 -0.98699999 0.56999999
8.3590002 -0.57099998 -1.026 0
7.908 -0.52899998 -0.95999998 0
8.0270004 -0.461 -0.97600001 0.17
7.9790001 -0.433 -0.96899998 0.57999998
7.96 -0.40700001 -0.96600002 0.40000001
7.9530001 -0.39399999 -0.96499997 0.41
7.9439998 -0.36899999 -0.96399999 0.41999999
7.9590001 -0.345 -0.96600002 0.46000001
7.9920001 -0.32100001 -0.97000003 0.51999998
8.3450003 -0.308 -1.022 0
8.8999996 -0.29800001 -1.103 0.090000004
8.1230001 -0.685 -1.051 0.20999999
8.0299997 -0.66399997 -1.0369999 0.25
8.0059996 -0.63700002 -1.033 0.56
8.026 -0.61299998 -1.036 0.31999999
8.0459995 -0.58899999 -1.038 0.63999999
8.0629997 -0.565 -1.041 0.38
8.0310001 -0.51200002 -1.035 0.19
7.8499999 -0.48800001 -1.007 0.14
8.0050001 -0.447 -1.031 0.31999999
8.007 -0.42199999 -1.031 0.60000002
8.0019999 -0.39700001 -1.03 0.28999999
7.987 -0.37099999 -1.027 0.52999997
8.0019999 -0.34599999 -1.029 0.38999999
8.0010004 -0.32100001 -1.029 0.56
7.941 -0.30599999 -1.02 0.38
8.8879995 -0.31799999 -1.165 0.090000004
8.9460001 -0.292 -1.174 0.11
7.9169998 -0.62599999 -1.136 0.43000001
8.0679998 -0.61199999 -1.16 0.38999999
7.5760002 -0.55299997 -1.081 0.16
7.836 -0.546 -1.122 0.34
7.8670001 -0.486 -1.126 0.14
7.8000002 -0.45699999 -1.115 0.18000001
8.0249996 -0.39399999 -1.15 0.27000001
7.9860001 -0.36700001 -1.1440001 0.44999999
7.9780002 -0.34200001 -1.143 0.5
7.9780002 -0.329 -1.143 0.54000002
7.9770002 -0.30399999 -1.142 0.54000002
7.9640002 -0.27900001 -1.14 0.68000001
7.9889998 -0.25400001 -1.1440001 0.49000001
8.9490004 -0.25299999 -1.296 0.19
7.7989998 -0.61400002 -1.194 0.23999999
7.7789998 -0.588 -1.1900001 0.13
7.9200001 -0.58600003 -1.214 0.25999999
7.9510002 -0.56400001 -1.219 0.46000001
7.9879999 -0.54100001 -1.225 0.30000001
7.8769999 -0.45899999 -1.205 0.039999999
7.961 -0.40099999 -1.219 0.38999999
7.9559999 -0.37599999 -1.2180001 0.38
7.941 -0.34999999 -1.215 0.44
7.9439998 -0.32499999 -1.216 0.44999999
7.9359999 -0.30000001 -1.214 0.62
8.1199999 -0.28200001 -1.245 0.38999999
8.3830004 -0.266 -1.289 0.2
8.8979998 -0.27000001 -1.376 0.20999999
7.3590002 -0.574 -1.1849999 0.14
7.8699999 -0.50099999 -1.274 0.31
7.987 -0.48300001 -1.295 0.25
7.835 -0.449 -1.268 0.25
8.0369997 -0.435 -1.303 0.23999999
7.9980001 -0.39500001 -1.296 0.31999999
7.9749999 -0.36899999 -1.2920001 0.44999999
7.9689999 -0.34299999 -1.29 0.47999999
7.9660001 -0.31799999 -1.29 0.51999998
7.9710002 -0.29300001 -1.29 0.5
7.9720001 -0.26800001 -1.29 0.58999997
7.9990001 -0.257 -1.295 0.56999999
7.4250002 -0.57800001 -1.252 0
7.6599998 -0.57200003 -1.295 0.02
7.625 -0.546 -1.288 0.029999999
7.6849999 -0.52600002 -1.299 0
7.6690001 -0.5 -1.296 0.059999999
7.8150001 -0.498 -1.323 0.090000004
7.8499999 -0.47600001 -1.329 0.2
7.948 -0.45699999 -1.347 0
8.0340004 -0.43700001 -1.362 0.090000004
7.96 -0.382 -1.348 0.34
7.9489999 -0.35699999 -1.346 0.34
7.9320002 -0.34400001 -1.3430001 0.44
7.9289999 -0.31799999 -1.342 0.37
7.9299998 -0.294 -1.342 0.44999999
7.9580002 -0.27000001 -1.347 0.43000001
8.1949997 -0.25299999 -1.39 0.07
7.4959998 -0.59899998 -1.332 0
7.5409999 -0.579 -1.34 0
7.6149998 -0.56 -1.354 0.02
7.6500001 -0.551 -1.36 0.07
7.6849999 -0.52899998 -1.367 0.039999999
7.6760001 -0.50400001 -1.365 0.07
7.6820002 -0.47999999 -1.3660001 0.079999998
7.8790002 -0.46700001 -1.404 0.14
7.9400001 -0.35800001 -1.414 0.31999999
7.9299998 -0.33199999 -1.4119999 0.36000001
7.9359999 -0.308 -1.413 0.40000001
7.941 -0.28299999 -1.414 0.34
7.2969999 -0.58999997 -1.3789999 0
